# .PCD v.7 - Point Cloud Data file format
VERSION .7
FIELDS x y z
SIZE 4 4 4
TYPE F F F
WIDTH 824
HEIGHT 1
VIEWPOINT 0 0 0 1 0 0 0
POINTS 824
DATA ascii
7.835092296193183 2.2381024027822556 -0.7281901023337705
0.37545777858264484 -0.02679069440956053 0.2657965006698068
0.3754426330074828 -0.02674982762574044 0.26579851880217026
6.588871707509101 2.7969824934957566 -0.5621328732917172
6.242217769215644 2.9565822745321335 -0.5159416577765805
5.663091411183418 2.9607984686849655 -0.4387738487670286
5.885416736195625 3.4132663870809616 -0.4683983704993589
6.0632541080217965 3.8804342413900437 -0.4920950314948423
4.015290488789619 2.715599742030913 -0.21920649027322364
6.386428584645332 4.928227629756743 -0.5351575396010739
3.159558286259712 2.4805900717733445 -0.1051812848994596
3.144334783146919 2.6949603224752487 -0.10315276002381873
4.497144927571357 4.39409133443814 -0.2834129712531431
4.358352412770332 4.637207236385161 -0.264919080490814
4.229596843312324 4.906240668391997 -0.2477625391433103
1.9028485913973463 2.1146232748983445 0.062273658161415335
1.7908557553988111 2.152241196727568 0.07719656014944482
1.8392132421236647 2.456564154720122 0.07075298512484002
1.736530770848335 2.5301055575368943 0.08443527603651452
1.5639469524126661 2.4606082106588425 0.10743185067678857
2.2487792869310987 4.373889651393706 0.016178838258041617
2.014916648457588 4.340896334743316 0.047340727691902396
1.8074214359026564 4.356691088771636 0.07498920643831658
1.6711332698565138 4.610951151943023 0.09314943039919305
1.5915913482409132 5.18727227697354 0.10374828362966942
1.7789455552797926 7.435572829341704 0.07878357852007317
1.6291810174685133 8.702594962215239 0.09873949671293664
1.3012856741648329 9.257925238704496 0.14243113184477257
1.0245422025423658 11.521276679134184 0.17930684173609185
0.42962643254810684 4.2195160056112355 0.2585785978486674
0.2468390514355313 4.188912119960601 0.2829347805133002
0.06496479112917297 4.175292220210845 0.3071692877462046
-0.11562565963452942 4.150718417262847 0.331232733373894
-0.29946203034108765 4.147874083614165 0.35572869265581536
-1.4726771215695726 8.932124343013578 0.5120580860426562
0.3742779640838897 -0.026151154120730356 0.2659537094301631
-2.2847926716107714 8.886911597347074 0.6202714064171451
-2.6356530288953173 8.668883528804594 0.6670231142094272
-3.110524187495171 8.78542443761807 0.7302990772774356
-3.540348778178154 8.74038335332852 0.7875726440003055
-1.787099371363579 4.299362387752349 0.5539544143726962
-1.8384289840955126 3.959313597774321 0.5607940473606723
-2.0665831665295946 3.9525279665945114 0.5911953070213931
-2.279843101908623 3.9057936335561814 0.6196119108250278
-2.251647720744072 3.5208315516470017 0.6158549108555453
-2.2012329201001513 3.1533100272176804 0.6091371693661349
-2.1666619877118456 2.8452005053518357 0.6045306541969913
-2.1438741783398974 2.5809349680898728 0.6014942147781985
-2.6346483330029833 -3.2303734158517776 0.6961745538761752
-2.6064722637433397 -3.4912374352456985 0.692145905738129
-2.5729892353314745 -3.7703352307321487 0.687358490472092
-2.153692732264458 -3.542299065494722 0.6274071552803653
-1.9404912094373095 -3.560294661426729 0.5969234623959201
-1.717404375483452 -3.5440779065133987 0.5650263347675937
-1.5059228042859423 -3.5256913041116653 0.5347885408451694
-1.306196461131035 -3.508149657154268 0.5062315383007663
-1.1203379730481493 -3.5000267361642776 0.4796573438694613
-0.938799629618584 -3.4832349156381546 0.4537008621742861
-0.7634990314740527 -3.462896857166475 0.4286362596800463
-0.6506217817563403 -3.6385805939676223 0.41249699080492425
0.36158063385897987 -0.08157310237902973 0.26777155748697984
0.36469978496694677 -0.07816499819774006 0.26732557900379467
0.36603532482200973 -0.08448330288547848 0.267134622602156
0.36945163162687533 -0.07585195800084446 0.2666461564846249
0.37119809498341494 -0.08201779773253773 0.26639644591034445
0.3736408490318034 -0.07811261689085339 0.2660471791792806
0.3759471981998693 -0.08210153853315685 0.26571741571080926
0.3786652123768043 -0.08697422569412563 0.26532879214630517
0.3806854545351278 -0.08176683610100124 0.26503993639619144
0.38133578032517546 -0.07057867174763058 0.2649469523354346
0.38616624597722404 -0.0849359442831931 0.2642562888109969
0.3920044613283288 -0.09795197447556828 0.2634215367039578
2.1410249372225416 -6.051384720707124 0.01334532285238671
2.446527232716621 -6.105859074497407 -0.030335613245712045
2.791934480259956 -6.226492676639741 -0.07972220396493507
2.0611883302431715 -3.8539624547006546 0.024760416989578482
1.917841543744148 -3.1540210579873977 0.04525626385713982
1.8627810378771437 -2.739316258335298 0.053128845339073416
1.9893396993380201 -2.689062867069429 0.03503339672590661
2.1337456603747023 -2.6618018483163772 0.01438613915945458
2.2947106261950148 -2.648497614765352 -0.0086287639090879
2.5418856044512403 -2.730811152363008 -0.043969996924148325
2.6237711806994093 -2.595289502048677 -0.05567807769273353
2.5661096473436964 -2.3196564053537307 -0.047433593029723886
2.7089724441271437 -2.2649610375406204 -0.0678602240035398
6.559110393117011 -5.457977089786714 -0.6183557293364865
6.707157840321601 -5.115555081272309 -0.639523663277374
7.958780994008125 -5.59344700326938 -0.8184816024253232
0.37534745137469583 -0.027672322106359646 0.26580316794263487
0.3753704984652039 -0.02763542316416104 0.26579987265415544
0.37539193035132923 -0.027597543859433502 0.26579680831184666
8.123313655446113 -3.8448944424631057 -0.8420066020438535
8.063820590565742 -3.4045250748636184 -0.8335003039786679
0.3754461423473593 -0.02747875305386086 0.26578905704502537
7.8312218089800485 -2.5474713181497513 -0.8002430579612119
0.37547354488430285 -0.027396022447196886 0.2657851390000578
0.37548454130097964 -0.027353830449560777 0.265783566723825
0.37549370534049087 -0.02731119408008934 0.26578225644027403
0.37550101971516125 -0.0272681944948138 0.2657812106377823
0.3755064702805292 -0.027224913540981364 0.26578043130996226
0.37551004679204636 -0.02718143361881201 0.2657799199411092
0.3755117424976241 -0.027137837481409664 0.2657796774916496
8.742521991322578 0.19423189411144878 -0.9305414340445859
8.68747304875666 0.5600896144865098 -0.9226706407019956
8.64043592412287 0.9242394829748216 -0.9159450910041196
8.604198207448066 1.2895885373113694 -0.910763897652374
8.570552577565254 1.6573394204137863 -0.9059530875632626
8.541884173939765 2.0299415255544724 -0.9018541953513486
7.949821223805488 2.239606108760649 -0.8172005793998105
0.3754579603069622 -0.026794816908937067 0.2657873673057329
6.74174379308039 2.5065025950429978 -0.6444687626311643
6.600054969380439 2.7728545332906784 -0.6242099783370358
6.314645518849433 2.964635815715605 -0.5834019563147885
5.649928798268379 2.92682453641873 -0.4883602640578611
5.8904282947283395 3.3874077464101853 -0.5227470776984555
6.047138919423164 3.8380210066793503 -0.5451537153670651
4.042993774006904 2.7150127554891648 -0.25859955763314796
6.351383914540351 4.862069811916167 -0.5886548540541989
3.176331271718086 2.4769208098409714 -0.13468349790071082
3.155975570271553 2.6862151289938034 -0.13177306270097328
4.53938840825373 4.4063679839132375 -0.3295743844458921
4.3874986072283395 4.636230197048003 -0.3078570744941099
4.2414743800860055 4.883745875453765 -0.28697846149896217
1.909488787243904 2.1070663596151413 0.04645053232218194
1.7951106925707472 2.140982594585234 0.0628044077208178
1.8230140109758985 2.4080919886587204 0.05881477082277703
1.7419893642168653 2.517055239772612 0.07039972329641747
1.5718115468721998 2.4526524210928025 0.09473187411333489
2.2668796678286207 4.3692657614706105 -0.004649468416915659
2.031606068203987 4.333633627986724 0.02899011159445214
1.8279095788698805 4.360772814845855 0.058114788775696036
1.6834425826769484 4.584051814174468 0.07877077842260766
1.601636995862068 5.136163916683013 0.0904674001982348
1.7823042770128859 7.288947310542876 0.064635477309479
1.6789765258532179 8.789956297969633 0.07940933788324761
1.341195752213539 9.263703551387602 0.12770547652746606
1.0733194251757276 11.514311995601469 0.1660066314985888
0.4478615571957242 4.217232909297759 0.2554350488832133
0.26490824420267456 4.201430049037749 0.28159384550656247
0.0830442209940564 4.183597769832427 0.30759689519311356
-0.09748960535710938 4.157804217433745 0.33340974832083153
-0.27697206537908203 4.128084387874419 0.35907228225971627
-1.4360656837720263 8.962708678340727 0.5248003222992557
0.37428247447911855 -0.026150089327989266 0.26595543910718694
-2.8852005104321825 11.089435782527739 0.7319986441185611
-2.6453394989270556 8.832388129329496 0.6977031745960849
-3.0311889747876513 8.706709113216215 0.7528721907189029
-3.4944627384442675 8.751137938594633 0.8191114285042422
-1.8013200859326708 4.381326403713042 0.5770246603539126
-1.8177924255627977 3.968142237758452 0.5793798782875674
-2.0378770927686083 3.9495932723043503 0.6108477630665439
-2.2676348785657274 3.929875817394072 0.6436986842205661
-2.259922752787529 3.5693351889608445 0.6425959982922214
-2.2133560280103075 3.2011437083242478 0.6359378614475864
-2.1744959453839647 2.8833214903829636 0.6303816058685916
-2.1485202411908495 2.6121372843740525 0.6266675808479922
-2.631319055964409 -3.2047996853830276 0.7333368578007358
-2.6035564045209276 -3.463780198002046 0.7290197231819766
-2.579387674738823 -3.7518487309457718 0.7252614119103091
-2.176477442194878 -3.548057589435762 0.6626078703453677
-1.9586112598676073 -3.5608661507608352 0.6287291564991611
-1.7369289497632372 -3.5485022400857864 0.5942570188095706
-1.5223075250882494 -3.526136908436006 0.5608828582813876
-1.3264231781262743 -3.517749104404634 0.5304223516037601
-1.1325670580167162 -3.493404898548311 0.5002772578051227
-0.9484245876569141 -3.4699573849679886 0.471642650013222
-0.7771760324735034 -3.4606888627054153 0.4450130828669207
-0.6502088407773364 -3.5850651597024856 0.42526935720945763
0.3735825077843081 -0.03100575342569326 0.2660672844400542
0.36565437943005674 -0.0722365078868327 0.2673001279368909
0.36640485126787536 -0.08049190765041683 0.26718342763035613
0.3688205376479935 -0.07980537017602299 0.26680778245338294
0.37109676010237747 -0.08000690838116978 0.26645382434492054
0.3732717232292678 -0.08510658120531414 0.26611561219453866
0.37577219838073217 -0.08510658120531414 0.2657267821674613
0.37794716150762253 -0.08000690838116978 0.26538857001707944
0.38043853204959743 -0.08179348310250614 0.26500115583314615
0.38173716917896383 -0.07456173723358486 0.2647992145981552
0.3860883715775024 -0.08596749951857899 0.2641225918674754
0.3843862165909421 -0.06791675066370342 0.2643872810773464
2.113744010518135 -6.065833840274995 -0.0045321068713529145
2.415879716466011 -6.113040242099946 -0.051514961476073984
2.8424224754076612 -6.449586186313813 -0.11784339761231971
2.073429693768562 -3.9345851277353225 0.00173687124754357
1.9605265756350172 -3.281871590519136 0.01929358327890801
1.8759212394457472 -2.7967000340463577 0.032449922805084463
1.9707974096041334 -2.689316067600435 0.017696432118667837
2.120803584645332 -2.6720252369882522 -0.005629875416503671
2.301502217839302 -2.6867747639657913 -0.03372896527741981
2.639433373997749 -2.8830573891641555 -0.0862780890414579
2.60531186063105 -2.6014199589731155 -0.08097211336587501
2.55288528401667 -2.33001664629001 -0.07281965827439857
2.682190408299507 -2.262782130146211 -0.09292692756150794
6.442621459553779 -5.412657055759614 -0.6776832125136716
6.672823180745185 -5.142792973423188 -0.7134801528403623
0.37531882845593356 -0.02771169475773175 0.2657972822968295
0.3753435562926505 -0.027675955312138543 0.2657934370550938
0.3753667201477263 -0.02763915834976186 0.2657898350195173
7.214080085347236 -3.8245268200876175 -0.797646918053375
0.3754081827451635 -0.027562673774359867 0.26578338748788516
0.37542640249972903 -0.027523131796902165 0.26578055427364594
0.37544290058810004 -0.02748282313723874 0.2657779887709912
7.654149760792793 -2.5279195641519485 -0.8660788915107114
0.3754706095883783 -0.027400214097274587 0.265773679963444
0.3754817677059371 -0.02735807097952173 0.2657719448512798
0.3754910987432275 -0.027315475399068676 0.26577049385070856
0.37549858500512057 -0.02727250846829091 0.2657693297120422
0.3755042121725317 -0.0272292519544001 0.2657684546762757
0.375507969593459 -0.027185788206684523 0.26576787038777544
0.3755098501665678 -0.02714219996005821 0.265767577952487
0.3755098501665678 -0.02709857018954179 0.265767577952487
0.375507969593459 -0.027054981942915477 0.26576787038777544
0.3755042121725317 -0.0270115181951999 0.2657684546762757
8.446321239064277 1.230179395770842 -0.9892634532401425
8.472637881825507 1.6030543709753098 -0.9933557889411313
8.45801519353205 1.9746701384542527 -0.9910818717429501
8.164825191090644 2.2708353663442673 -0.9454901597449643
0.3754576456363473 -0.02679894560742949 0.2657756958839163
6.671907653401435 2.451230969524199 -0.7133378169486386
6.530152072499336 2.71397372732144 -0.6912944099852902
6.290053119252265 2.9251567984579148 -0.653958477730499
5.6573116679888376 2.9059490824697556 -0.5555655739257199
5.882352580617011 3.355281319713408 -0.5905600569197995
6.038601150105537 3.8029808665273728 -0.6148570558974606
4.032144536564887 2.6869909430502 -0.30284807896112037
6.380757083485664 4.851327147579009 -0.6680631420562131
3.212443103383125 2.4915806914327683 -0.17538250302766395
3.147578467915596 2.659407820796782 -0.16529593681787086
4.548124064992011 4.3850786353109426 -0.38308421587441993
4.417176951954902 4.638045516109282 -0.3627216002890928
4.249981870244087 4.85963555822354 -0.33672235226129127
1.9141195913057936 2.097861256694609 0.02650997722650933
1.8018504281740797 2.134700503444487 0.043968103175415274
1.7191046376925123 2.215313401317412 0.05683528566862511
1.747596492360176 2.5057432318685593 0.05240472341085839
1.5794309278231276 2.4455577994344773 0.07855489039923119
2.223064055035652 4.224501338100249 -0.021531649584518198
2.0502303739290846 4.333744254207427 0.0053444125702517
1.8467008968096388 4.361901011562163 0.03699374878908562
1.677970757077278 4.498554911708648 0.06323169851805138
1.6225852866869581 5.134591307735259 0.07184428656603264
1.7890939613085401 7.169882025813872 0.04595177555586266
1.7188054223757399 8.811796393489653 0.0568818219950335
1.3785103460055006 9.250407424068266 0.10979854250456261
1.123994698117317 11.545049872493559 0.14937634701038766
0.46600486088806503 4.215869631862456 0.25169538082684445
0.28344861913734787 4.196873869991118 0.280083325972213
0.10231544573122375 4.175861086940581 0.3082499795606272
-0.07868734996503479 4.16083880910855 0.33639636570717263
-0.2575603226918567 4.1289398337362355 0.3642115437438624
-1.3935966591138231 8.968642439937407 0.5408680059960025
0.37428709754982703 -0.026149042987076685 0.26595771899576354
-2.8412416080731737 11.138259139156157 0.7659803249886172
-2.6082680324811327 8.865500655269438 0.7297523834755557
-2.942514191080986 8.605136122798735 0.7817284681847232
-3.443941126276909 8.755293097591215 0.8597015955498355
-1.8058519462842333 4.447377410030181 0.6049747088005679
-1.791789541651665 3.9690003062246384 0.6027879633953708
-2.007588396479546 3.9456548357961716 0.6363452293923038
-2.241332064082085 3.9348323012350144 0.672692916636719
-2.260614881922661 3.6099450255392136 0.6756914475014346
-2.223137150217949 3.2483942175863327 0.6698635735561984
-2.1859347919720995 2.92761012563687 0.6640785255482333
-2.1530082325238573 2.6449038649557175 0.6589583375504153
-2.637548933436333 -3.192215475940889 0.7851540663292544
-2.6083312134045946 -3.448349985981172 0.7801174142410892
-2.5725412468213427 -3.720117840671724 0.7739477970650332
-2.17886520426458 -3.528720888996309 0.7060843327095645
-1.973566303660332 -3.55964950075168 0.6706940748741763
-1.7520318130750048 -3.548524413013643 0.6325050809433597
-1.540351758410393 -3.5325961445810257 0.5960148193886416
-1.3350796798962938 -3.5066252087594925 0.5606291809132236
-1.1486120323438036 -3.49859312524814 0.5284851410439151
-0.9668787817258228 -3.482691321277803 0.4971572526743548
-0.79235876600927 -3.4659715031625686 0.46707277679945397
-0.6515444616574634 -3.542153391742891 0.4427986511042254
0.3595024098854672 -0.088249016308969 0.2685103277223097
0.36391257338488214 -0.08003631954807613 0.2677500859614374
0.36635144364351147 -0.07946786632556294 0.2673296636681916
0.36894407013693564 -0.07679897894877766 0.2668827363419259
0.37135980285035186 -0.07300833215731953 0.26646630267043653
0.3730257657103401 -0.08510050898212765 0.26617911730556804
0.37541629508865737 -0.07911246618050907 0.26576702823933734
0.3778308267451983 -0.08201779773253773 0.2653508015688421
0.37936339045205825 -0.07386291375178669 0.26508661207174006
0.3819506720852267 -0.07756019359249447 0.2646406060563313
0.38580409653747194 -0.08601801445502613 0.26397633731960374
0.38717483386659735 -0.0806007308306155 0.26374004413503277
2.0917730231981886 -6.1042168473245555 -0.030105420107589487
2.392327537129463 -6.146652970218843 -0.0819162509391172
3.3230471511583937 -7.821583542728608 -0.24235741114114356
3.181780089924873 -6.578597817325776 -0.2180052480647428
1.9685999055605543 -3.3436704014779983 -0.008872368092284921
1.9098009963732374 -2.896458420658296 0.001263640170349356
1.9560539623003614 -2.698053631687349 -0.00670964335893226
2.121575584004463 -2.705561671161836 -0.03524292325471473
2.659051646779121 -3.217883381748384 -0.12789521431420875
2.6615247627001417 -2.9446835850717483 -0.12832150673364234
2.5972688098650587 -2.621811900043672 -0.11724484776948524
2.5588068862658155 -2.3628259037973343 -0.1106146357009275
2.689028968403877 -2.2951801156045852 -0.13306281780694557
6.183130015919746 -5.2419402932168895 -0.735389985794769
6.606244792531074 -5.147900376224702 -0.8083281896064145
0.3753141336588349 -0.027715207881106183 0.2657846392436331
0.3753389483995896 -0.027679577982330814 0.2657803615771845
7.017515410969795 -4.157994065189546 -0.8792246959159238
0.3753838680082161 -0.02760519473259163 0.2657726181538455
0.3754038873690341 -0.027566582913555324 0.26576916713804527
0.37542222796270364 -0.02752712172833097 0.2657660055161832
0.3754388548064206 -0.027486886323008806 0.26576313931275214
0.3754537363516327 -0.027445953240662933 0.26576057397016845
0.37546684419300147 -0.027404400421351314 0.26575831439242753
0.37547815335944035 -0.027362306983837046 0.2657563648723444
0.37548764237232246 -0.027319753021861546 0.2657547291061055
0.3754952931872729 -0.02727681954593689 0.2657534102369245
0.37550109119416886 -0.027233588294170916 0.26575241075317896
0.3755050253335547 -0.027190141550368283 0.26575173256116974
0.37550708821305745 -0.02714656202397717 0.2657513769705692
0.3755072757581409 -0.027102932668190336 0.26575134462166167
0.3755055877359744 -0.02705933653078799 0.2657516356163105
0.375502027406187 -0.027015856608618636 0.26575224935788716
0.37549660140445196 -0.0269725756547862 0.2657531847258942
0.37548932009173297 -0.02692957606951066 0.26575443990134223
0.375480197379661 -0.026886939700039223 0.26575601251226905
0.37546925061411895 -0.026844747702403114 0.2657578995609801
0.3754565006334495 -0.02680308041772631 0.2657600974531524
6.703276862690986 2.4380929137228073 -0.8250550410697324
6.29757236439997 2.586281027889067 -0.7551180503318173
5.97056459386164 2.7425083781240525 -0.698747136349426
5.682502975056709 2.8973858023641648 -0.6490899107406003
5.852455844471992 3.312901702022368 -0.6783870837638242
4.7980844875078805 2.943956341838652 -0.496630289311157
4.026760568211616 2.6655237341878952 -0.3636663339087827
3.917566051075996 2.8327116633413376 -0.34484300827478004
3.2111458678942335 2.475088563060576 -0.22306744074319435
3.158074130604805 2.653332438564116 -0.21391872381661964
4.58252166707331 4.3946611548421926 -0.45947066759561134
4.4491722484331735 4.6463629866598195 -0.43648342108224464
4.248123874257148 4.8269331122396535 -0.40182588314508033
1.9144091506701124 2.084611620998198 0.0004692592671053375
1.808944215367378 2.130864348506743 0.018649719004883047
1.714302291462959 2.191449370479399 0.03496447885538506
1.7738895316820753 2.534640755748564 0.024692586903824087
1.5859295030336988 2.4384238387106003 0.05709389532114434
1.5425252814989698 2.6349510813711228 0.06457609618212151
2.0687898298006666 4.337468352412993 -0.026143499369369272
1.8622386356096876 4.357249465083892 0.009462616687072989
1.674877872059883 4.427556243037993 0.04176063025499749
1.6390250821810377 5.119328227138335 0.04794106567408013
1.798144449780525 7.073414054012114 0.020511425380958792
1.7531809707384718 8.80577584753018 0.02826241338755059
1.4142407079439772 9.232968535518461 0.08669029856230187
1.1715232630472792 11.538637366390043 0.12853091145063805
0.48410535354429596 4.219423976039702 0.2470307716181414
0.30180570233875625 4.200236048793609 0.27845631847287583
0.12100263435655945 4.179019656276519 0.30962387407328057
-0.05894053976720459 4.157828059291655 0.3406432040979998
-0.24002177517598755 4.14553758153897 0.37185872281099724
-1.3507046798962938 8.97930928716641 0.5633226850083011
-2.3000655273694384 11.277652945613676 0.7269773402264255
-2.781286726405083 11.140817847347074 0.8099321939995425
-2.5591604809064257 8.870052542781645 0.7716411569168704
-2.901735077311455 8.633705344295317 0.8306955316116946
-3.393506775309502 8.766568389034086 0.9154691317131656
-1.7608511547345507 4.415618624782378 0.6340253868153232
-1.77204729120916 3.9846799040792527 0.6359554448177951
-1.9830570320386278 3.954421725368315 0.672330162768616
-2.205265055109917 3.92800017843228 0.7106352367451327
-2.265662203242241 3.6603791380880417 0.7210467674782413
-2.217373619486748 3.2793988848684372 0.7127225616028445
-2.1740725139874804 2.947944607829863 0.7052581527283328
-2.1455459694165575 2.66764542112332 0.7003406205227511
-2.636112223078667 -3.168104681873506 0.8122974851181644
-2.607200632502495 -3.4224276875497757 0.8070506074478763
-2.581903944422661 -3.704710993671602 0.8024596788933414
-2.192835340907036 -3.5213883255960403 0.7318506457855838
-1.993907699992119 -3.5624447201730667 0.6957488575031894
-1.7731325725812304 -3.5543811654092727 0.6556821086456912
-1.5509544710416185 -3.521467003727144 0.615360758548035
-1.3539781669873583 -3.512417349720186 0.5796130814602511
-1.1639545063275683 -3.4981983040811477 0.5451271750977176
-0.9810676674146045 -3.4804342125894485 0.5119365074684756
-0.8104815582532275 -3.4758777951242386 0.48097816789652276
-0.6542496780652393 -3.501189265155977 0.4526248642256396
0.3735531722291533 -0.030997308891078577 0.26609701499239596
0.3645035189788949 -0.07607265909928654 0.2677393653908657
0.36550689053052776 -0.08337917899507855 0.2675572712220164
0.3681613018948745 -0.08173914974350308 0.26707554310689735
0.3704385848928403 -0.08296639820355747 0.26666225689825657
0.3726890510393467 -0.08809193571824406 0.2662538375485601
0.3750757672920052 -0.07011670222300861 0.2658206911988818
0.37742260524334126 -0.07903675338048313 0.26539478205506745
0.3806337870869946 -0.08880843197721813 0.2648120099225925
0.38285195950681083 -0.08550981780309055 0.2644094513276504
0.38590058714413755 -0.08803230872172688 0.2638561798272567
0.3851212452378284 -0.07286920746583317 0.2639976165270345
3.062660684178413 -9.714232239628023 -0.22192794894670081
2.7449710269671095 -7.333155426883882 -0.16427294229959083
3.2839114566546095 -7.831758770847505 -0.26208100532983375
3.193914165089668 -6.69662550439853 -0.2457481405684812
1.9881943364840162 -3.4272563790323196 -0.026931502575622324
1.9109074969988478 -2.9331789349557815 -0.012905337567077402
1.9355655809145582 -2.693858418369478 -0.01738030528520179
2.701843490193428 -3.634858879947847 -0.15644607758019996
2.6716611285906446 -3.2701700066568313 -0.15096850013230873
2.667948712895454 -2.983838829899019 -0.15029478883241248
2.5608043571215284 -2.6058717106821 -0.1308499953696592
2.582431306431831 -2.4125354622842727 -0.1347749016234739
2.6925749679308546 -2.3221531247140823 -0.15476397489999366
0.3752560276284974 -0.027786266745811448 0.2657879771765001
6.561528434346259 -5.164687428379243 -0.856909909004913
6.181700458119453 -4.4343793725015574 -0.7879779717872006
6.2156774898272165 -4.069185528660005 -0.7941441914985043
6.166895141194404 -3.67009929170627 -0.785290994400726
0.37538043416367584 -0.027609006315747395 0.2657653996035369
6.004763831685127 -2.9113512372018753 -0.7558671615073544
6.391426791737617 -2.7818117474557815 -0.8260394713828427
6.704981078694404 -2.5939717625619827 -0.8829440257499082
0.3754508764928367 -0.027450075740039468 0.2657526155713858
0.37546414219338187 -0.027408581361219406 0.2657502081025304
0.3754756143412713 -0.027366538375195235 0.26574812610181103
0.37548527116683983 -0.027324026832052626 0.26574637357100434
0.3754930942764666 -0.027281127654992163 0.2657449538133951
6.9299390216570504 -0.8156788085939345 -0.9237698695609433
6.975205649922431 -0.5256482099534926 -0.9319849393317563
0.37550542999321335 -0.027150923589493035 0.2657427151031006
0.375505804617719 -0.027107295478804447 0.26574264711655265
0.3755043064689424 -0.02706369228281372 0.2657429190045368
0.3755009383408513 -0.0270201970083738 0.26574353025773595
0.3754957066362884 -0.026976892451334864 0.26574447971199694
0.37548862136697136 -0.026933861026468806 0.26574576556288226
0.37547969603707754 -0.02689118466833432 0.26574738535111825
0.37546894758503624 -0.026848944620274127 0.2657493360062508
0.37545639644173645 -0.02680722125251603 0.26575161380298956
6.743493785450996 2.425282206630522 -0.88993338560556
6.633987178395332 2.706085887050444 -0.8700598857352597
5.8646690746050485 2.6642679835317673 -0.7304423830458981
5.730932464192451 2.8979949618337693 -0.7061716101119382
5.82522129018122 3.268674817180449 -0.7232833883712155
4.803076018879951 2.923793759441191 -0.5377822301337583
6.129530658314765 4.183566775417144 -0.7785100123832089
3.9698734184008253 2.853523697948271 -0.3865708491752012
3.2256367107134474 2.4696857596395554 -0.25150517439340186
3.166647185872139 2.6423525477407517 -0.24079964374993873
4.6086337466936715 4.3903133536336965 -0.502494432682739
4.458256473134101 4.623055186366851 -0.47520367121194435
4.250434150288642 4.79424830923062 -0.4374876401374204
1.921058883259834 2.077773537730986 -0.014747627730117563
1.814850558827461 2.1228396559713425 0.00452729249502587
1.726902355740608 2.1939997340200486 0.020488328581108328
1.7774033447008741 2.518822875118071 0.011323294883026358
1.5977136989336622 2.4392876292226853 0.043933755998863455
1.52221642930323 2.5622837210653366 0.05763515019918847
2.0855984588366163 4.331782546138579 -0.04460860108827186
1.8829442163210524 4.362893786525542 -0.007830478901611093
1.682320942471565 4.3891985083578176 0.028579048161758658
1.6714875598650587 5.163110938167388 0.030545107369674918
1.4783538480501783 5.366440978145415 0.06559543991590905
1.7900460859041822 8.806496825313383 0.009028873687042471
1.3678255577784193 8.502344336604887 0.0856543400337832
1.222478618214668 11.56990167150479 0.11203221166635918
0.5023148258429181 4.223895754909331 0.24272907646502423
0.32004285726958626 4.202517237758452 0.275808180963053
0.13934663433843963 4.1820990706441945 0.30860131913925576
-0.040293614079414675 4.159707274532134 0.34120281720663476
-0.22043765585607178 4.143270697688872 0.373895733897938
-1.3082300524014818 8.980966773128324 0.571310601477875
-2.2516200641888964 11.307881560420805 0.7425190427353519
-2.7291901211041796 11.1575719977377 0.8291895010521548
-2.5108134845990526 8.865862097835356 0.789558015113129
-2.8545308212537157 8.63503667364102 0.8519366004517215
-3.3424615959424364 8.765711035823637 0.9404872872879642
-1.9577155212659227 4.887088980769927 0.6891806044628757
-1.7514555553693163 3.994146075343901 0.6517481424858707
-1.9597487549085009 3.960525240993315 0.6895496168186801
-2.179921160151421 3.9326946402547898 0.729506961350693
-2.2698323826093065 3.7061197424886765 0.7458242394974368
-2.2240858177441942 3.3230414057729782 0.7375220575382846
-2.18299175303167 2.9895033503530564 0.7300642349770206
-2.1657533745068895 2.717381444072539 0.726935795789017
-2.629257927348076 -3.1433115338327346 0.8615886189987796
-2.609242926051079 -3.4054568146707473 0.8576194860985416
-2.579779396464287 -3.6807628010751663 0.8517766811897891
-2.206946144511162 -3.519553694629854 0.7778417089035647
-2.010614405085503 -3.5650942658426223 0.7389078953316348
-1.7774386505383837 -3.5380394791604934 0.6926677742054599
-1.5652772287625658 -3.5224686001779495 0.6505949118187564
-1.3697917560834276 -3.51719287385959 0.6118289747288364
-1.1813815931577074 -3.5077221726419388 0.574466130976929
-0.9993780950803149 -3.493860993290132 0.5383737602284091
-0.8209278682965625 -3.46870449533481 0.5029860057881015
-0.6450061897534717 -3.4267838334085403 0.468099690323128
0.3627332815181624 -0.07359147047418926 0.2682589623624371
0.36350918125623577 -0.07994035606998776 0.2681050969300704
0.36561773468071335 -0.0813660917224345 0.26768695812336224
0.368066719102503 -0.08071788003463123 0.2672013099551113
0.3701352154117238 -0.08394467433709477 0.26679111486430335
0.37274185109214597 -0.07908871000427578 0.2662742035359988
0.37497563282755875 -0.08011836534160946 0.2658312313257047
0.37693476613873356 -0.07405597319621418 0.2654427235435141
0.3797868008937847 -0.08286257436293934 0.2648771481368603
0.3827128450598728 -0.08653646683115337 0.2642968961050646
0.3838172017809164 -0.07824964051861141 0.2640778956016438
0.38511336438620203 -0.07389014934915875 0.26382085872012245
3.021811475346626 -9.758824143314547 -0.2590520760962827
3.363533486912788 -9.405488762760347 -0.32681755041574073
0.37486547887471244 -0.02805705728269939 0.26585307550396825
3.2187518974047316 -6.858186993503755 -0.29810652946923805
3.244390239308418 -6.161090168857759 -0.3031907460639341
1.8757655521135939 -2.9055295323373733 -0.0317843339393003
1.9143528838854444 -2.6921394204141555 -0.039436437840209726
2.7459950347643507 -3.7499790524484573 -0.20435599302743507
2.692268600056709 -3.339756283664888 -0.19370175218080116
2.6687445541124952 -3.0207732056619583 -0.18903676485513282
2.544927110264839 -2.617823634052461 -0.16448304867242408
2.5620586772661817 -2.418647084140962 -0.16788033461068702
2.697282304356636 -2.354139122867769 -0.19469598745797706
6.141974200795234 -5.321281704807466 -0.8777988336036069
0.3752788465449747 -0.027756463317478195 0.2657711022371804
6.039148082325996 -4.378845009708589 -0.8574078462073667
6.173063983510078 -4.089952263736909 -0.8839640996405942
6.091823329518379 -3.6692555283548294 -0.8678536794135434
5.999755611012519 -3.2716992234231888 -0.849596061463104
5.9933864970904 -2.9458253716470657 -0.8483330390403134
6.088819255421699 -2.6819866036416946 -0.8672579905936582
6.3979661365252145 -2.5081398819925247 -0.9285636327216489
6.460476150105537 -2.2242369984628616 -0.9409597299048764
6.2766587634783395 -1.8667230938913284 -0.9045076749274594
6.3336069484453805 -1.5982549523355423 -0.9158008477637631
6.37884735066706 -1.3282317255975662 -0.9247721812674863
6.580691089222968 -1.0859008168222366 -0.9647990844199521
6.653187503407539 -0.8130557869913039 -0.9791754863211972
6.659325351307929 -0.5313769911767897 -0.9803927323768002
6.706288566182197 -0.25253624072093345 -0.9897058389136655
0.37550282240641975 -0.027111658538620107 0.2657266864886187
0.3755015155280169 -0.027068049115319157 0.2657269456582289
6.762019862721504 0.599902536964232 -1.0007576129386289
0.37549331371934824 -0.026981211969091676 0.26572857211124207
0.3754864345633585 -0.026938149534094267 0.265729936309639
0.37547771942132824 -0.0268954340167559 0.2657316645678511
0.37546718494064846 -0.02685314668952313 0.26573375361169743
0.3754548511447545 -0.026811368053591 0.2657361994685052
6.722378005574287 2.3924624587057175 -0.9928964755484921
6.588432540486396 2.661891188716704 -0.9663342616507871
5.858348121235908 2.6394652987478318 -0.8215542218634946
5.80139373738581 2.91458841810208 -0.8102597377250058
5.794604529927314 3.227723088359648 -0.8089133880088193
4.806966056416572 2.9073948527334275 -0.6130587837645871
6.098636378834785 4.135358538722808 -0.8692046782920224
3.954094638417305 2.824007954692656 -0.443929352516876
3.219313611577095 2.449874367809111 -0.2982178709456785
3.155102481434883 2.616305317973906 -0.285484471077667
4.6385280986529 4.396458830928618 -0.5796565792510373
4.48983310658747 4.632397856807525 -0.550169505829559
4.249741544316352 4.76543971548062 -0.5025579116294248
1.9176177879076612 2.0605129862783493 -0.04008386349176002
1.8151596685152662 2.1098386908529343 -0.019765832180724863
1.7337916990023268 2.1905254984853806 -0.0036300799796445404
1.7902469535570753 2.5238921309469284 -0.01482550119851661
1.6076097388964308 2.4400767947195114 0.02139256084467339
1.5236533780794752 2.5435201788900437 0.038041613345398184
2.112566222737373 4.358459200954253 -0.07874331688378883
1.9000220199328077 4.364646163081939 -0.03659451817964149
1.689440836499275 4.357536997890288 0.005164972787155386
1.6867493291597975 5.145692553615386 0.005698702578796622
1.4745762248736036 5.249007907008941 0.04777388954664635
1.8254251380663526 8.811970915889555 -0.021801539416061166
1.3968409200411451 8.46113416204434 0.0631892600109713
1.2689562340479505 11.559052672481352 0.08854956114794182
0.5200801541309964 4.222289290523345 0.23705614106859135
0.3383223575752389 4.201718535518462 0.2730997938675718
0.15762617189699524 4.192089285945708 0.30893292212988305
-0.021375189234672853 4.1644928122518605 0.34442995423580575
-0.19979555409139282 4.138937201595122 0.3798117780139582
-1.2650154928464281 8.991293158626371 0.591051242594971
-2.18925977747625 11.294085707759672 0.7743343927910464
-2.6788129905957567 11.197246756648832 0.8714156367828982
-2.46353841822332 8.877621855830961 0.8287254788925784
-2.803020010401665 8.637097563838774 0.8960466601898807
-3.2910509208936083 8.77658769140225 0.9928260662605899
-3.734339008738457 8.755033698177153 1.0807327249100345
-1.7723484138745653 4.089181628322417 0.6916583695461886
-1.9314906696576464 3.9639458323476853 0.7232172110130923
-2.152413616587578 3.939791407680327 0.7670275785973208
-2.2810042003888475 3.7682861948965134 0.7925278165390628
-2.2361450294751513 3.3794500494955124 0.7836320021202701
-2.190849790980278 3.035034384822661 0.7746496417572635
-2.1669006447095263 2.7512924338338913 0.7699004032662051
-2.6467266182202684 -3.1398628090860305 0.8932805874397891
-2.618217716624199 -3.3921521042825638 0.8873607137253421
-2.5849757293958056 -3.6614358757974563 0.8804580190231936
-2.2201075653333056 -3.5120170449258743 0.8046935417702334
-2.025830994059502 -3.5610239838602005 0.7643521645119327
-1.8010408977765429 -3.548731121921724 0.7176747241070407
-1.588808069636284 -3.5355117653848587 0.6736047782948154
-1.3824077944058764 -3.511178526783174 0.630745998864426
-1.1975044111508715 -3.509849581623262 0.5923509516766208
-1.0087095598477709 -3.4803119038583694 0.5531479039242404
-0.8367527822751392 -3.472765717411226 0.5174412348320621
-0.6599879364270557 -3.429856333637422 0.48073618793989586
0.36330416549259537 -0.07063745310325001 0.26825056159998345
0.3626804317560207 -0.08282255729455326 0.268380079466282
0.3657339004080903 -0.0793548559190688 0.26774602958596366
0.3673552966889154 -0.0846566704453883 0.267409348093337
0.3699004764881145 -0.08392461737412785 0.2668808440108696
0.37240776985214763 -0.08207798352259968 0.26636020689750145
0.37473556966375765 -0.07711990898269985 0.2658768415063823
0.37748145249003284 -0.09004783233422611 0.26530666159362587
0.3786431246649634 -0.07292741140145634 0.26506544147980454
0.38191588904970997 -0.08260887836832378 0.264385854989654
0.38375599246734493 -0.07927454238552425 0.26400375941432136
0.3842459184330117 -0.07101079052109097 0.2639020267421292
2.9684400459032667 -9.744457993412203 -0.2727033874938352
3.387848128865303 -9.641556534671968 -0.3597931048819883
2.584072103093208 -6.144127640628999 -0.192889758105026
3.2260155578356398 -6.972215924167817 -0.32618872141336036
3.2108471294146192 -6.169275078678315 -0.3230389735648496
3.5032927890520704 -6.100790295505708 -0.3837650797316892
1.8986710210543287 -2.6963720654489456 -0.05056688999627662
2.7358162303667677 -3.776472363376802 -0.22439927672837806
2.6919598479967726 -3.3761673306466995 -0.21529255127404762
2.6727385421496046 -3.0586243008615432 -0.21130127524827552
2.5317869086962355 -2.6297431324960647 -0.18203283166383338
2.575754394124092 -2.4591966008188186 -0.19116259431336952
2.6837875743609083 -2.3651533459665237 -0.21359557723496986
0.3752467187683258 -0.02779275189414446 0.26577070188488866
5.698961486409248 -4.5498721932413035 -0.8396935841986997
5.7413098712664254 -4.195174965763276 -0.8484871766517026
5.648732413838447 -3.764019284153169 -0.8292636058280332
5.675787200520576 -3.4433205460550247 -0.8348814628074033
5.798790683339179 -3.1934779023172317 -0.8604230067679746
5.894910087178291 -2.930956873798555 -0.8803820989081723
5.906084289143623 -2.631602797413057 -0.8827023885199887
5.972179164479316 -2.3660328721048294 -0.8964269540259702
5.99209951360041 -2.0870607232095657 -0.9005633971640927
0.3754570342230771 -0.02741692665177223 0.26572703007388915
6.019630660603584 -1.5450572108270584 -0.90628019785379
0.37547878147830926 -0.027332562752694942 0.26572251427989974
6.103558768818916 -1.0325483416559158 -0.9237078807303769
6.151730765889228 -0.7777518366815505 -0.9337106130072934
6.18999933202082 -0.5206573044301924 -0.9416571042487485
6.230001678059638 -0.26209038844127036 -0.9499634883353574
6.239358653615058 -0.0009841637106594893 -0.9519064805457456
6.267868270466865 0.2619958187101426 -0.9578265330741269
6.275261630604804 0.5266474152563158 -0.9593617103049619
6.289652576039375 0.7950657273290697 -0.9623500487754209
0.3754854488748286 -0.026942441519627467 0.2657211298106849
0.3754769321627144 -0.026899687628888645 0.2657228982903907
0.37546659762534984 -0.026857353851942465 0.2657250442467775
0.3754544648787167 -0.026815520762743548 0.2657275636053091
6.649452914784492 2.3372051383016648 -1.0370622060248715
6.59126304585749 2.6353847647665085 -1.0249791524360043
5.86679433781916 2.6184589529989304 -0.8745438239524228
5.835228671620429 2.907182421779448 -0.8679893395850522
5.820585956166328 3.216680255031401 -0.86494878744577
4.81468891103083 2.8898141051290573 -0.6560752174804074
6.130735625813545 4.127747740840728 -0.9293510100791318
3.9512114425402296 2.8013233805654587 -0.4767749092528684
3.314367045949043 2.514731373882109 -0.3445347926566465
3.1656234164934767 2.6079840327261032 -0.3136483213851316
4.679267158101142 4.407987322902495 -0.6279549977729184
4.510770072529853 4.623670306300933 -0.5929667732665402
4.2481014629107126 4.7297041083334035 -0.5384238741347653
1.9296404023867262 2.0615889693258347 -0.056997635121093515
1.815515031407417 2.0943720007894577 -0.03329963302110267
1.7308525939684523 2.168389048671538 -0.01571957087014747
1.7980698247652662 2.5167021418569626 -0.029677160734878305
1.6114113231402052 2.425677981471831 0.009082309251083609
1.5243352552157057 2.5202212000845017 0.027163571958793875
2.1347962518435133 4.367346015071685 -0.09959808802102638
1.9206259151201857 4.370994773006255 -0.05512581085656715
1.7051869531374586 4.349736418819243 -0.01039011096452308
1.7141759296160353 5.169784751033599 -0.012256660217986826
1.4776538511019361 5.161976542568023 0.03685691142584252
1.6784711976748121 7.723292079067046 -0.004842617268310312
1.4271566768389357 8.42377015600186 0.04734260523821282
1.3165751000147474 11.551974501704985 0.07030475819612908
0.5377759536009442 4.216605391597564 0.23202166268731522
0.35643356230372303 4.206839289760405 0.26967723579275477
0.1765648474197995 4.182027068233306 0.30702680284286904
-0.0025645295876849383 4.164222445583159 0.34422284299637246
-0.18160707752889282 4.146406855678374 0.3814008527448313
-1.2180870870847094 8.967995848750883 0.5966249623348849
-2.13274646799749 11.289776053523832 0.7865530469467776
-2.621412287165581 11.196251120662504 0.8880240538170474
-2.4167225460309374 8.878732886409574 0.8455204584648746
-2.7578203777570116 8.64458199987393 0.9163490750839847
-3.242191086222588 8.781743254756742 1.0169282176544803
-3.679280529429375 8.751521315669828 1.107689402346863
-1.7827479938763964 4.160640921687896 0.7138762393047946
-1.8978905777234423 3.952569689845854 0.7377854802658694
-2.1213097671765673 3.935855355357939 0.7841782786896365
-2.284230719019829 3.8151781226156296 0.8180086829712527
-2.2413926224011766 3.423448767757231 0.8091133453896182
-2.2066044906873095 3.086868014430815 0.8018896200707095
-2.170320759226738 2.784600463008696 0.794355354552521
-2.6281817058820116 -3.105156216526216 0.9427339055588382
-2.6037509540814745 -3.358876738453096 0.9372271516373294
-2.577030191828667 -3.632891449833101 0.9312042810967105
-2.2758863071698534 -3.567856106662935 0.863326153998627
-2.0426852802533495 -3.5658574437143264 0.8107623078873294
-1.8164236645001757 -3.552496466541475 0.7597627260735171
-1.5984791616696703 -3.530193123722261 0.7106377997448581
-1.4015934566754686 -3.524604115390962 0.666259548907532
-1.2057283024091112 -3.5009980534555374 0.6221113421967166
-1.0254190067548143 -3.4916687344552932 0.5814694383194583
-0.8509726623792041 -3.478611502552217 0.5421490290215152
-0.6656839947003711 -3.409000668430513 0.5003847547819751
0.3565955472391259 -0.0957011242749152 0.2699618300435977
0.36375369627291076 -0.07691147899050091 0.26834837584885823
0.3738443675779898 -0.031059616466796145 0.26607392743301167
0.36713672366255634 -0.08462418591398571 0.26758583767934757
0.3696756677914571 -0.08390348380226467 0.26701355695388335
0.3723518169231873 -0.07807184358853672 0.26641034997430685
0.374521960805 -0.08212038477677677 0.265921197181
0.3768623120363962 -0.08206803699750279 0.26539367942734676
0.3788581176873457 -0.0779263151230273 0.26494382268413025
0.38305318385625 -0.09354719122666691 0.26399825029204654
0.38383886713796966 -0.08128480961341236 0.26382115627768504
0.384656798395158 -0.07398259242791508 0.26363679375628996
2.864526023457588 -9.553081307316011 -0.29532841658090186
3.3062250514727247 -9.558567795658297 -0.3948878428885801
3.577890863011421 -9.04910925378818 -0.45612166141961646
2.4158224960070265 -5.078893456363862 -0.1941901824424131
2.147716989110054 -3.9251501893045364 -0.13375891065095497
2.9871189494829786 -5.171783242130464 -0.3229610106894834
1.8812216420870436 -2.7022729252817093 -0.07369057154153419
2.7143261333208692 -3.792019877338594 -0.26147327637170387
2.6999647517901075 -3.4315164422037063 -0.2582361481139524
2.6828656097155226 -3.1108849381448684 -0.2543819925734861
2.5466437240343702 -2.680698428058809 -0.2236774346778257
2.590926398823799 -2.506583962345308 -0.23365876888726783
2.677077760289253 -2.3874428605081497 -0.25307736610864234
2.7487106223803175 -2.257243666553682 -0.26922354912255836
5.5106885333758004 -4.4449994896890574 -0.8917763612220151
5.292889823506416 -3.8957991932870804 -0.8426843068549497
5.352141131947578 -3.599928173923677 -0.8560395619819028
5.3891842265825876 -3.301961455249971 -0.864389099831329
5.397037734578193 -2.9996204709054886 -0.8661593577811582
5.430481662343086 -2.7251174782754837 -0.8736976764151914
5.4635555644732126 -2.45971110811252 -0.881152548546539
5.465787162373603 -2.188899073505586 -0.8816556117484433
5.475926627705634 -1.9304625128747879 -0.8839410922477109
5.509264697621406 -1.6867157553674637 -0.8914554498145444
5.526939620564521 -1.4423429106714187 -0.8954394242713315
5.559398402760566 -1.2054175471307693 -0.9027556559989316
5.595956077168525 -0.970898244285768 -0.9109957597205502
5.629211654255927 -0.7362692092897353 -0.9184916398475034
5.654385795186103 -0.5006375347616133 -0.924165882820831
5.678281058857978 -0.2644970898868499 -0.9295518777320249
5.69406484563166 -0.027120385074800333 -0.9331095597693784
5.712392081807197 0.21178300330620434 -0.9372406384894711
5.747679938862861 0.454763707017714 -0.9451945207068784
5.78492759663874 0.7030431295393053 -0.9535900733420712
5.602680911610664 0.9178729916570726 -0.912511625046478
5.623209704945625 1.1656783486364426 -0.9171387336203916
0.3754642465015102 -0.026861566020220638 0.2657088049496669
0.3754523363991801 -0.026819679263558358 0.26571148950154017
0.37543865532876664 -0.026778364921033502 0.26571457322700004
6.076847304890693 2.3941177989004196 -1.0193891904303891
5.880863418171943 2.604946103191191 -0.9752141616294248
5.418367614338935 2.6644122267721237 -0.8709670684287412
0.3753667910446573 -0.026620385051051274 0.2657307715168135
4.811613788197578 2.8705365324972214 -0.7342042109916074
6.12487482030207 4.100335803127105 -1.0302145860144956
3.9617187877398146 2.7944888735769333 -0.5426369092414243
3.3711798091631544 2.550458159541899 -0.4095287702033384
3.088907708714546 2.5225569869039597 -0.34590432857965064
4.699574222157539 4.40643903264981 -0.7089502594420773
4.5252549548845895 4.616252150630767 -0.6696585199782712
4.258506288121284 4.717758860683257 -0.6095331690261228
1.9304417272310865 2.051465239620024 -0.08478481387590003
1.813655366490425 2.079738583659941 -0.058461048359618906
1.7436009546023024 2.1758181715963425 -0.04267070507501197
1.8012285133104933 2.5060038233755173 -0.055660017485366586
1.6461359163027418 2.4769112730978073 -0.020701982731567148
1.5284798045855177 2.509635176753813 0.00581782246138024
2.1537535091143263 4.376089301204497 -0.1351195356795652
1.9293285508852613 4.35184690008145 -0.08453390812371803
1.7212748428087843 4.351394381618316 -0.037638374323592905
1.6500745912294996 4.852737155055816 -0.021589764113174204
1.4935769935351026 5.147248473262603 0.013684979920639273
1.701418866704048 7.686878886318023 -0.03316281055902076
1.4604065318804396 8.427921500301176 0.021161637549652335
1.1599615116816175 9.175726142024809 0.08888225937391686
0.8652723630171429 11.494902815913969 0.15530551904941964
0.3745219608050005 4.207879748439605 0.2659211971809999
0.19482553500944488 4.191860404109771 0.3064249672939913
0.016151328871787718 4.1718403960226125 0.3466983282020228
-0.1614170769948352 4.145871367549712 0.38672244483734536
-1.1785216430920946 9.00159760961514 0.6159789183190005
-2.072196731974541 11.286197867488676 0.8174143054535525
-2.5578351120252 11.191142287349516 0.9268776991417544
-2.3618123630780565 8.86915132055264 0.8826939084580081
-2.70773221056646 8.653760161495024 0.9606646516373294
-3.1861813167828905 8.784842696285063 1.0685076334526675
-3.6249585251111376 8.764971938228422 1.1674084284355777
-1.7925820450085985 4.240288462734038 0.7543888011028903
-1.8682119945783007 3.9548644686697068 0.771435878520264
-2.0968439678449022 3.949470486736113 0.8229697563698428
-2.2827272514600145 3.863032784557158 0.8648680665543216
-2.2473812202710497 3.475534644222075 0.856901011710419
-2.208321581293999 3.12821671018582 0.8480969288399356
-2.1707513431805956 2.820244755840117 0.839628598933472
-2.147390375544487 2.5580620432851853 0.8343630054047244
-2.620019922663628 -3.3543358181955276 0.9675757505943912
-2.58847213785833 -3.621945414447969 0.9601837017586368
-2.555177698542534 -3.913359675312227 0.9523825266411441
-2.173250208308159 -3.7297730778696 0.8628926494171756
-1.834495554377495 -3.554437909031099 0.7835186340859073
-1.6099985937375414 -3.5221989487649856 0.7309164919903415
-1.41343654196447 -3.517511639499849 0.6848598041584628
-1.2223841051358568 -3.504750523472017 0.6400940933277743
-1.037403474261223 -3.485374007129854 0.5967510559609073
-0.8632422785062183 -3.473097357654756 0.5559431531479495
-0.6827689508694995 -3.4195542668344436 0.5136562355806964
-0.6037613252896655 -3.712607893848604 0.49514388227964806
0.3631334447514426 -0.0788135265352187 0.26858965358826387
0.3681116665925991 -0.06352988978642796 0.2674232005853118
0.36638167530560606 -0.08855406915563915 0.26782855675685274
0.3689984593752932 -0.08886028801817272 0.2672154150683345
0.37199946127162986 -0.08105820020455692 0.2665122469085181
0.3743010518324489 -0.0791198906840739 0.2659729586163157
0.376662534962238 -0.08307721441406582 0.26541963678448516
